 1.93200e+00  2.67400e+00  7.6050000e-02
 1.93200e+00  2.68800e+00  7.6050000e-02
 1.93200e+00  2.70200e+00  7.6050000e-02
 1.93200e+00  2.71600e+00  7.6050000e-02
 1.93200e+00  2.73000e+00  7.6050000e-02
 1.93200e+00  2.74400e+00  7.6050000e-02
 1.93200e+00  2.75800e+00  7.6050000e-02
 1.93200e+00  2.77200e+00  7.6050000e-02
 1.93200e+00  2.78600e+00  7.6050000e-02
 1.93200e+00  2.80000e+00  7.6050000e-02
 1.93200e+00  2.81400e+00  7.6050000e-02
 1.93200e+00  2.82800e+00  7.6050000e-02
 1.93200e+00  2.84200e+00  7.6050000e-02
 1.93200e+00  2.85600e+00  7.6050000e-02
 1.93200e+00  2.87000e+00  7.6050000e-02
 1.93200e+00  2.88400e+00  7.6050000e-02
 1.93200e+00  2.89800e+00  7.6050000e-02
 1.93200e+00  2.91200e+00  7.6050000e-02
 1.93200e+00  2.92600e+00  7.6050000e-02
 1.93200e+00  2.94000e+00  7.6050000e-02
 1.93200e+00  2.95400e+00  7.6050000e-02
 1.93200e+00  2.96800e+00  7.6050000e-02
 1.93200e+00  2.98200e+00  7.6050000e-02
 1.93200e+00  2.99600e+00  7.6050000e-02
 1.93200e+00  3.01000e+00  7.6050000e-02
 1.93200e+00  3.02400e+00  7.6050000e-02
 1.93200e+00  3.03800e+00  7.6050000e-02
 1.93200e+00  3.05200e+00  7.6050000e-02
 1.93200e+00  3.06600e+00  7.6050000e-02
 1.93200e+00  3.08000e+00  7.6050000e-02
 1.93200e+00  3.09400e+00  7.6050000e-02
 1.93200e+00  3.10800e+00  7.6050000e-02
 1.93200e+00  3.12200e+00  7.6050000e-02
 1.93200e+00  3.13600e+00  7.6050000e-02
 1.93200e+00  3.15000e+00  7.6050000e-02
 1.93200e+00  3.16400e+00  7.6050000e-02
 1.93200e+00  3.17800e+00  7.6050000e-02
 1.93200e+00  3.19200e+00  7.6050000e-02
 1.93200e+00  3.20600e+00  7.6050000e-02
 1.93200e+00  3.22000e+00  7.6050000e-02
 1.93200e+00  3.23400e+00  7.6050000e-02
 1.93200e+00  3.24800e+00  7.6050000e-02
 1.93200e+00  3.26200e+00  7.6050000e-02
 1.93200e+00  3.27600e+00  7.6050000e-02
 1.93200e+00  3.29000e+00  7.6050000e-02
 1.93200e+00  3.30400e+00  7.6050000e-02
 1.93200e+00  3.31800e+00  7.6050000e-02
 1.93200e+00  3.33200e+00  7.6050000e-02
 1.93200e+00  3.34600e+00  7.6050000e-02
 1.93200e+00  3.36000e+00  7.6050000e-02
 1.93200e+00  3.37400e+00  7.6050000e-02
 1.93200e+00  3.38800e+00  7.6050000e-02
 1.93200e+00  3.40200e+00  7.6050000e-02
 1.94600e+00  0.00000e+00  7.5700000e-02
 1.94600e+00  1.40000e-02  7.5700000e-02
 1.94600e+00  2.80000e-02  7.5700000e-02
 1.94600e+00  4.20000e-02  7.5700000e-02
 1.94600e+00  5.60000e-02  7.5700000e-02
 1.94600e+00  7.00000e-02  7.5700000e-02
 1.94600e+00  8.40000e-02  7.5700000e-02
 1.94600e+00  9.80000e-02  7.5700000e-02
 1.94600e+00  1.12000e-01  7.5700000e-02
 1.94600e+00  1.26000e-01  7.5700000e-02
 1.94600e+00  1.40000e-01  7.5700000e-02
 1.94600e+00  1.54000e-01  7.5700000e-02
 1.94600e+00  1.68000e-01  7.5700000e-02
 1.94600e+00  1.82000e-01  7.5700000e-02
 1.94600e+00  1.96000e-01  7.5700000e-02
 1.94600e+00  2.10000e-01  7.5700000e-02
 1.94600e+00  2.24000e-01  7.5700000e-02
 1.94600e+00  2.38000e-01  7.5700000e-02
 1.94600e+00  2.52000e-01  7.5700000e-02
 1.94600e+00  2.66000e-01  7.5700000e-02
 1.94600e+00  2.80000e-01  7.5700000e-02
 1.94600e+00  2.94000e-01  7.5700000e-02
 1.94600e+00  3.08000e-01  7.5700000e-02
 1.94600e+00  3.22000e-01  7.5700000e-02
 1.94600e+00  3.36000e-01  7.5700000e-02
 1.94600e+00  3.50000e-01  7.5700000e-02
 1.94600e+00  3.64000e-01  7.5700000e-02
 1.94600e+00  3.78000e-01  7.5700000e-02
 1.94600e+00  3.92000e-01  7.5700000e-02
 1.94600e+00  4.06000e-01  7.5700000e-02
 1.94600e+00  4.20000e-01  7.5700000e-02
 1.94600e+00  4.34000e-01  7.5700000e-02
 1.94600e+00  4.48000e-01  7.5700000e-02
 1.94600e+00  4.62000e-01  7.5700000e-02
 1.94600e+00  4.76000e-01  7.5700000e-02
 1.94600e+00  4.90000e-01  7.5700000e-02
 1.94600e+00  5.04000e-01  7.5700000e-02
 1.94600e+00  5.18000e-01  7.5700000e-02
 1.94600e+00  5.32000e-01  7.5700000e-02
 1.94600e+00  5.46000e-01  7.5700000e-02
 1.94600e+00  5.60000e-01  7.5700000e-02
 1.94600e+00  5.74000e-01  7.5700000e-02
 1.94600e+00  5.88000e-01  7.5700000e-02
 1.94600e+00  6.02000e-01  7.5700000e-02
 1.94600e+00  6.16000e-01  7.5700000e-02
 1.94600e+00  6.30000e-01  7.5700000e-02
 1.94600e+00  6.44000e-01  7.5700000e-02
 1.94600e+00  6.58000e-01  7.5700000e-02
 1.94600e+00  6.72000e-01  7.5700000e-02
 1.94600e+00  6.86000e-01  7.5700000e-02
 1.94600e+00  7.00000e-01  7.5700000e-02
 1.94600e+00  7.14000e-01  7.5700000e-02
 1.94600e+00  7.28000e-01  7.5700000e-02
 1.94600e+00  7.42000e-01  7.5700000e-02
 1.94600e+00  7.56000e-01  7.5700000e-02
 1.94600e+00  7.70000e-01  7.5700000e-02
 1.94600e+00  7.84000e-01  7.5700000e-02
 1.94600e+00  7.98000e-01  7.5700000e-02
 1.94600e+00  8.12000e-01  7.5700000e-02
 1.94600e+00  8.26000e-01  7.5700000e-02
 1.94600e+00  8.40000e-01  7.5700000e-02
 1.94600e+00  8.54000e-01  7.5700000e-02
 1.94600e+00  8.68000e-01  7.5700000e-02
 1.94600e+00  8.82000e-01  7.5700000e-02
 1.94600e+00  8.96000e-01  7.5700000e-02
 1.94600e+00  9.10000e-01  7.5700000e-02
 1.94600e+00  9.24000e-01  7.5700000e-02
 1.94600e+00  9.38000e-01  7.5700000e-02
 1.94600e+00  9.52000e-01  7.5700000e-02
 1.94600e+00  9.66000e-01  7.5700000e-02
 1.94600e+00  9.80000e-01  7.5700000e-02
 1.94600e+00  9.94000e-01  7.5700000e-02
 1.94600e+00  1.00800e+00  7.5700000e-02
 1.94600e+00  1.02200e+00  7.5700000e-02
 1.94600e+00  1.03600e+00  7.5700000e-02
 1.94600e+00  1.05000e+00  7.5700000e-02
 1.94600e+00  1.06400e+00  7.5700000e-02
 1.94600e+00  1.07800e+00  7.5700000e-02
 1.94600e+00  1.09200e+00  7.5700000e-02
 1.94600e+00  1.10600e+00  7.5700000e-02
 1.94600e+00  1.12000e+00  7.5700000e-02
 1.94600e+00  1.13400e+00  7.5700000e-02
 1.94600e+00  1.14800e+00  7.5700000e-02
 1.94600e+00  1.16200e+00  7.5700000e-02
 1.94600e+00  1.17600e+00  7.5700000e-02
 1.94600e+00  1.19000e+00  7.5700000e-02
 1.94600e+00  1.20400e+00  7.5700000e-02
 1.94600e+00  1.21800e+00  7.5700000e-02
 1.94600e+00  1.23200e+00  7.5700000e-02
 1.94600e+00  1.24600e+00  7.5700000e-02
 1.94600e+00  1.26000e+00  7.5700000e-02
 1.94600e+00  1.27400e+00  7.5700000e-02
 1.94600e+00  1.28800e+00  7.5700000e-02
 1.94600e+00  1.30200e+00  7.5700000e-02
 1.94600e+00  1.31600e+00  7.5700000e-02
 1.94600e+00  1.33000e+00  7.5700000e-02
 1.94600e+00  1.34400e+00  7.5700000e-02
 1.94600e+00  1.35800e+00  7.5700000e-02
 1.94600e+00  1.37200e+00  7.5700000e-02
 1.94600e+00  1.38600e+00  7.5700000e-02
 1.94600e+00  1.40000e+00  7.5700000e-02
 1.94600e+00  1.41400e+00  7.5700000e-02
 1.94600e+00  1.42800e+00  7.5700000e-02
 1.94600e+00  1.44200e+00  7.5700000e-02
 1.94600e+00  1.45600e+00  7.5700000e-02
 1.94600e+00  1.47000e+00  7.5700000e-02
 1.94600e+00  1.48400e+00  7.5700000e-02
 1.94600e+00  1.49800e+00  7.5700000e-02
 1.94600e+00  1.51200e+00  7.5700000e-02
 1.94600e+00  1.52600e+00  7.5700000e-02
 1.94600e+00  1.54000e+00  7.5700000e-02
 1.94600e+00  1.55400e+00  7.5700000e-02
 1.94600e+00  1.56800e+00  7.5700000e-02
 1.94600e+00  1.58200e+00  7.5700000e-02
 1.94600e+00  1.59600e+00  7.5700000e-02
 1.94600e+00  1.61000e+00  7.5700000e-02
 1.94600e+00  1.62400e+00  7.5700000e-02
 1.94600e+00  1.63800e+00  7.5700000e-02
 1.94600e+00  1.65200e+00  7.5700000e-02
 1.94600e+00  1.66600e+00  7.5700000e-02
 1.94600e+00  1.68000e+00  7.5700000e-02
 1.94600e+00  1.69400e+00  7.5700000e-02
 1.94600e+00  1.70800e+00  7.5700000e-02
 1.94600e+00  1.72200e+00  7.5700000e-02
 1.94600e+00  1.73600e+00  7.5700000e-02
 1.94600e+00  1.75000e+00  7.5700000e-02
 1.94600e+00  1.76400e+00  7.5700000e-02
 1.94600e+00  1.77800e+00  7.5700000e-02
 1.94600e+00  1.79200e+00  7.5700000e-02
 1.94600e+00  1.80600e+00  7.5700000e-02
 1.94600e+00  1.82000e+00  7.5700000e-02
 1.94600e+00  1.83400e+00  7.5700000e-02
 1.94600e+00  1.84800e+00  7.5700000e-02
 1.94600e+00  1.86200e+00  7.5700000e-02
 1.94600e+00  1.87600e+00  7.5700000e-02
 1.94600e+00  1.89000e+00  7.5700000e-02
 1.94600e+00  1.90400e+00  7.5700000e-02
 1.94600e+00  1.91800e+00  7.5700000e-02
 1.94600e+00  1.93200e+00  7.5700000e-02
 1.94600e+00  1.94600e+00  7.5700000e-02
 1.94600e+00  1.96000e+00  7.5700000e-02
 1.94600e+00  1.97400e+00  7.5700000e-02
 1.94600e+00  1.98800e+00  7.5700000e-02
 1.94600e+00  2.00200e+00  7.5700000e-02
 1.94600e+00  2.01600e+00  7.5700000e-02
 1.94600e+00  2.03000e+00  7.5700000e-02
 1.94600e+00  2.04400e+00  7.5700000e-02
 1.94600e+00  2.05800e+00  7.5700000e-02
 1.94600e+00  2.07200e+00  7.5700000e-02
 1.94600e+00  2.08600e+00  7.5700000e-02
 1.94600e+00  2.10000e+00  7.5700000e-02
 1.94600e+00  2.11400e+00  7.5700000e-02
 1.94600e+00  2.12800e+00  7.5700000e-02
 1.94600e+00  2.14200e+00  7.5700000e-02
 1.94600e+00  2.15600e+00  7.5700000e-02
 1.94600e+00  2.17000e+00  7.5700000e-02
 1.94600e+00  2.18400e+00  7.5700000e-02
 1.94600e+00  2.19800e+00  7.5700000e-02
 1.94600e+00  2.21200e+00  7.5700000e-02
 1.94600e+00  2.22600e+00  7.5700000e-02
 1.94600e+00  2.24000e+00  7.5700000e-02
 1.94600e+00  2.25400e+00  7.5700000e-02
 1.94600e+00  2.26800e+00  7.5700000e-02
 1.94600e+00  2.28200e+00  7.5700000e-02
 1.94600e+00  2.29600e+00  7.5700000e-02
 1.94600e+00  2.31000e+00  7.5700000e-02
 1.94600e+00  2.32400e+00  7.5700000e-02
 1.94600e+00  2.33800e+00  7.5700000e-02
 1.94600e+00  2.35200e+00  7.5700000e-02
 1.94600e+00  2.36600e+00  7.5700000e-02
 1.94600e+00  2.38000e+00  7.5700000e-02
 1.94600e+00  2.39400e+00  7.5700000e-02
 1.94600e+00  2.40800e+00  7.5700000e-02
 1.94600e+00  2.42200e+00  7.5700000e-02
 1.94600e+00  2.43600e+00  7.5700000e-02
 1.94600e+00  2.45000e+00  7.5700000e-02
 1.94600e+00  2.46400e+00  7.5700000e-02
 1.94600e+00  2.47800e+00  7.5700000e-02
 1.94600e+00  2.49200e+00  7.5700000e-02
 1.94600e+00  2.50600e+00  7.5700000e-02
 1.94600e+00  2.52000e+00  7.5700000e-02
 1.94600e+00  2.53400e+00  7.5700000e-02
 1.94600e+00  2.54800e+00  7.5700000e-02
 1.94600e+00  2.56200e+00  7.5700000e-02
 1.94600e+00  2.57600e+00  7.5700000e-02
 1.94600e+00  2.59000e+00  7.5700000e-02
 1.94600e+00  2.60400e+00  7.5700000e-02
 1.94600e+00  2.61800e+00  7.5700000e-02
 1.94600e+00  2.63200e+00  7.5700000e-02
 1.94600e+00  2.64600e+00  7.5700000e-02
 1.94600e+00  2.66000e+00  7.5700000e-02
 1.94600e+00  2.67400e+00  7.5700000e-02
 1.94600e+00  2.68800e+00  7.5700000e-02
 1.94600e+00  2.70200e+00  7.5700000e-02
 1.94600e+00  2.71600e+00  7.5700000e-02
 1.94600e+00  2.73000e+00  7.5700000e-02
 1.94600e+00  2.74400e+00  7.5700000e-02
 1.94600e+00  2.75800e+00  7.5700000e-02
 1.94600e+00  2.77200e+00  7.5700000e-02
 1.94600e+00  2.78600e+00  7.5700000e-02
 1.94600e+00  2.80000e+00  7.5700000e-02
 1.94600e+00  2.81400e+00  7.5700000e-02
 1.94600e+00  2.82800e+00  7.5700000e-02
 1.94600e+00  2.84200e+00  7.5700000e-02
 1.94600e+00  2.85600e+00  7.5700000e-02
 1.94600e+00  2.87000e+00  7.5700000e-02
 1.94600e+00  2.88400e+00  7.5700000e-02
 1.94600e+00  2.89800e+00  7.5700000e-02
 1.94600e+00  2.91200e+00  7.5700000e-02
 1.94600e+00  2.92600e+00  7.5700000e-02
 1.94600e+00  2.94000e+00  7.5700000e-02
 1.94600e+00  2.95400e+00  7.5700000e-02
 1.94600e+00  2.96800e+00  7.5700000e-02
 1.94600e+00  2.98200e+00  7.5700000e-02
 1.94600e+00  2.99600e+00  7.5700000e-02
 1.94600e+00  3.01000e+00  7.5700000e-02
 1.94600e+00  3.02400e+00  7.5700000e-02
 1.94600e+00  3.03800e+00  7.5700000e-02
 1.94600e+00  3.05200e+00  7.5700000e-02
 1.94600e+00  3.06600e+00  7.5700000e-02
 1.94600e+00  3.08000e+00  7.5700000e-02
 1.94600e+00  3.09400e+00  7.5700000e-02
 1.94600e+00  3.10800e+00  7.5700000e-02
 1.94600e+00  3.12200e+00  7.5700000e-02
 1.94600e+00  3.13600e+00  7.5700000e-02
 1.94600e+00  3.15000e+00  7.5700000e-02
 1.94600e+00  3.16400e+00  7.5700000e-02
 1.94600e+00  3.17800e+00  7.5700000e-02
 1.94600e+00  3.19200e+00  7.5700000e-02
 1.94600e+00  3.20600e+00  7.5700000e-02
 1.94600e+00  3.22000e+00  7.5700000e-02
 1.94600e+00  3.23400e+00  7.5700000e-02
 1.94600e+00  3.24800e+00  7.5700000e-02
 1.94600e+00  3.26200e+00  7.5700000e-02
 1.94600e+00  3.27600e+00  7.5700000e-02
 1.94600e+00  3.29000e+00  7.5700000e-02
 1.94600e+00  3.30400e+00  7.5700000e-02
 1.94600e+00  3.31800e+00  7.5700000e-02
 1.94600e+00  3.33200e+00  7.5700000e-02
 1.94600e+00  3.34600e+00  7.5700000e-02
 1.94600e+00  3.36000e+00  7.5700000e-02
 1.94600e+00  3.37400e+00  7.5700000e-02
 1.94600e+00  3.38800e+00  7.5700000e-02
 1.94600e+00  3.40200e+00  7.5700000e-02
 1.96000e+00  0.00000e+00  7.5350000e-02
 1.96000e+00  1.40000e-02  7.5350000e-02
 1.96000e+00  2.80000e-02  7.5350000e-02
 1.96000e+00  4.20000e-02  7.5350000e-02
 1.96000e+00  5.60000e-02  7.5350000e-02
 1.96000e+00  7.00000e-02  7.5350000e-02
 1.96000e+00  8.40000e-02  7.5350000e-02
 1.96000e+00  9.80000e-02  7.5350000e-02
 1.96000e+00  1.12000e-01  7.5350000e-02
 1.96000e+00  1.26000e-01  7.5350000e-02
 1.96000e+00  1.40000e-01  7.5350000e-02
 1.96000e+00  1.54000e-01  7.5350000e-02
 1.96000e+00  1.68000e-01  7.5350000e-02
 1.96000e+00  1.82000e-01  7.5350000e-02
 1.96000e+00  1.96000e-01  7.5350000e-02
 1.96000e+00  2.10000e-01  7.5350000e-02
 1.96000e+00  2.24000e-01  7.5350000e-02
 1.96000e+00  2.38000e-01  7.5350000e-02
 1.96000e+00  2.52000e-01  7.5350000e-02
 1.96000e+00  2.66000e-01  7.5350000e-02
 1.96000e+00  2.80000e-01  7.5350000e-02
 1.96000e+00  2.94000e-01  7.5350000e-02
 1.96000e+00  3.08000e-01  7.5350000e-02
 1.96000e+00  3.22000e-01  7.5350000e-02
 1.96000e+00  3.36000e-01  7.5350000e-02
 1.96000e+00  3.50000e-01  7.5350000e-02
 1.96000e+00  3.64000e-01  7.5350000e-02
 1.96000e+00  3.78000e-01  7.5350000e-02
 1.96000e+00  3.92000e-01  7.5350000e-02
 1.96000e+00  4.06000e-01  7.5350000e-02
 1.96000e+00  4.20000e-01  7.5350000e-02
 1.96000e+00  4.34000e-01  7.5350000e-02
 1.96000e+00  4.48000e-01  7.5350000e-02
 1.96000e+00  4.62000e-01  7.5350000e-02
 1.96000e+00  4.76000e-01  7.5350000e-02
 1.96000e+00  4.90000e-01  7.5350000e-02
 1.96000e+00  5.04000e-01  7.5350000e-02
 1.96000e+00  5.18000e-01  7.5350000e-02
 1.96000e+00  5.32000e-01  7.5350000e-02
 1.96000e+00  5.46000e-01  7.5350000e-02
 1.96000e+00  5.60000e-01  7.5350000e-02
 1.96000e+00  5.74000e-01  7.5350000e-02
 1.96000e+00  5.88000e-01  7.5350000e-02
 1.96000e+00  6.02000e-01  7.5350000e-02
 1.96000e+00  6.16000e-01  7.5350000e-02
 1.96000e+00  6.30000e-01  7.5350000e-02
 1.96000e+00  6.44000e-01  7.5350000e-02
 1.96000e+00  6.58000e-01  7.5350000e-02
 1.96000e+00  6.72000e-01  7.5350000e-02
 1.96000e+00  6.86000e-01  7.5350000e-02
 1.96000e+00  7.00000e-01  7.5350000e-02
 1.96000e+00  7.14000e-01  7.5350000e-02
 1.96000e+00  7.28000e-01  7.5350000e-02
 1.96000e+00  7.42000e-01  7.5350000e-02
 1.96000e+00  7.56000e-01  7.5350000e-02
 1.96000e+00  7.70000e-01  7.5350000e-02
 1.96000e+00  7.84000e-01  7.5350000e-02
 1.96000e+00  7.98000e-01  7.5350000e-02
 1.96000e+00  8.12000e-01  7.5350000e-02
 1.96000e+00  8.26000e-01  7.5350000e-02
 1.96000e+00  8.40000e-01  7.5350000e-02
 1.96000e+00  8.54000e-01  7.5350000e-02
 1.96000e+00  8.68000e-01  7.5350000e-02
 1.96000e+00  8.82000e-01  7.5350000e-02
 1.96000e+00  8.96000e-01  7.5350000e-02
 1.96000e+00  9.10000e-01  7.5350000e-02
 1.96000e+00  9.24000e-01  7.5350000e-02
 1.96000e+00  9.38000e-01  7.5350000e-02
 1.96000e+00  9.52000e-01  7.5350000e-02
 1.96000e+00  9.66000e-01  7.5350000e-02
 1.96000e+00  9.80000e-01  7.5350000e-02
 1.96000e+00  9.94000e-01  7.5350000e-02
 1.96000e+00  1.00800e+00  7.5350000e-02
 1.96000e+00  1.02200e+00  7.5350000e-02
 1.96000e+00  1.03600e+00  7.5350000e-02
 1.96000e+00  1.05000e+00  7.5350000e-02
 1.96000e+00  1.06400e+00  7.5350000e-02
 1.96000e+00  1.07800e+00  7.5350000e-02
 1.96000e+00  1.09200e+00  7.5350000e-02
 1.96000e+00  1.10600e+00  7.5350000e-02
 1.96000e+00  1.12000e+00  7.5350000e-02
 1.96000e+00  1.13400e+00  7.5350000e-02
 1.96000e+00  1.14800e+00  7.5350000e-02
 1.96000e+00  1.16200e+00  7.5350000e-02
 1.96000e+00  1.17600e+00  7.5350000e-02
 1.96000e+00  1.19000e+00  7.5350000e-02
 1.96000e+00  1.20400e+00  7.5350000e-02
 1.96000e+00  1.21800e+00  7.5350000e-02
 1.96000e+00  1.23200e+00  7.5350000e-02
 1.96000e+00  1.24600e+00  7.5350000e-02
 1.96000e+00  1.26000e+00  7.5350000e-02
 1.96000e+00  1.27400e+00  7.5350000e-02
 1.96000e+00  1.28800e+00  7.5350000e-02
 1.96000e+00  1.30200e+00  7.5350000e-02
 1.96000e+00  1.31600e+00  7.5350000e-02
 1.96000e+00  1.33000e+00  7.5350000e-02
 1.96000e+00  1.34400e+00  7.5350000e-02
 1.96000e+00  1.35800e+00  7.5350000e-02
 1.96000e+00  1.37200e+00  7.5350000e-02
 1.96000e+00  1.38600e+00  7.5350000e-02
 1.96000e+00  1.40000e+00  7.5350000e-02
 1.96000e+00  1.41400e+00  7.5350000e-02
 1.96000e+00  1.42800e+00  7.5350000e-02
 1.96000e+00  1.44200e+00  7.5350000e-02
 1.96000e+00  1.45600e+00  7.5350000e-02
 1.96000e+00  1.47000e+00  7.5350000e-02
 1.96000e+00  1.48400e+00  7.5350000e-02
 1.96000e+00  1.49800e+00  7.5350000e-02
 1.96000e+00  1.51200e+00  7.5350000e-02
 1.96000e+00  1.52600e+00  7.5350000e-02
 1.96000e+00  1.54000e+00  7.5350000e-02
 1.96000e+00  1.55400e+00  7.5350000e-02
 1.96000e+00  1.56800e+00  7.5350000e-02
 1.96000e+00  1.58200e+00  7.5350000e-02
 1.96000e+00  1.59600e+00  7.5350000e-02
 1.96000e+00  1.61000e+00  7.5350000e-02
 1.96000e+00  1.62400e+00  7.5350000e-02
 1.96000e+00  1.63800e+00  7.5350000e-02
 1.96000e+00  1.65200e+00  7.5350000e-02
 1.96000e+00  1.66600e+00  7.5350000e-02
 1.96000e+00  1.68000e+00  7.5350000e-02
 1.96000e+00  1.69400e+00  7.5350000e-02
 1.96000e+00  1.70800e+00  7.5350000e-02
 1.96000e+00  1.72200e+00  7.5350000e-02
 1.96000e+00  1.73600e+00  7.5350000e-02
 1.96000e+00  1.75000e+00  7.5350000e-02
 1.96000e+00  1.76400e+00  7.5350000e-02
 1.96000e+00  1.77800e+00  7.5350000e-02
 1.96000e+00  1.79200e+00  7.5350000e-02
 1.96000e+00  1.80600e+00  7.5350000e-02
 1.96000e+00  1.82000e+00  7.5350000e-02
 1.96000e+00  1.83400e+00  7.5350000e-02
 1.96000e+00  1.84800e+00  7.5350000e-02
 1.96000e+00  1.86200e+00  7.5350000e-02
 1.96000e+00  1.87600e+00  7.5350000e-02
 1.96000e+00  1.89000e+00  7.5350000e-02
 1.96000e+00  1.90400e+00  7.5350000e-02
 1.96000e+00  1.91800e+00  7.5350000e-02
 1.96000e+00  1.93200e+00  7.5350000e-02
 1.96000e+00  1.94600e+00  7.5350000e-02
 1.96000e+00  1.96000e+00  7.5350000e-02
 1.96000e+00  1.97400e+00  7.5350000e-02
 1.96000e+00  1.98800e+00  7.5350000e-02
 1.96000e+00  2.00200e+00  7.5350000e-02
 1.96000e+00  2.01600e+00  7.5350000e-02
 1.96000e+00  2.03000e+00  7.5350000e-02
 1.96000e+00  2.04400e+00  7.5350000e-02
 1.96000e+00  2.05800e+00  7.5350000e-02
 1.96000e+00  2.07200e+00  7.5350000e-02
 1.96000e+00  2.08600e+00  7.5350000e-02
 1.96000e+00  2.10000e+00  7.5350000e-02
 1.96000e+00  2.11400e+00  7.5350000e-02
 1.96000e+00  2.12800e+00  7.5350000e-02
 1.96000e+00  2.14200e+00  7.5350000e-02
 1.96000e+00  2.15600e+00  7.5350000e-02
 1.96000e+00  2.17000e+00  7.5350000e-02
 1.96000e+00  2.18400e+00  7.5350000e-02
 1.96000e+00  2.19800e+00  7.5350000e-02
 1.96000e+00  2.21200e+00  7.5350000e-02
 1.96000e+00  2.22600e+00  7.5350000e-02
 1.96000e+00  2.24000e+00  7.5350000e-02
 1.96000e+00  2.25400e+00  7.5350000e-02
 1.96000e+00  2.26800e+00  7.5350000e-02
 1.96000e+00  2.28200e+00  7.5350000e-02
 1.96000e+00  2.29600e+00  7.5350000e-02
 1.96000e+00  2.31000e+00  7.5350000e-02
 1.96000e+00  2.32400e+00  7.5350000e-02
 1.96000e+00  2.33800e+00  7.5350000e-02
 1.96000e+00  2.35200e+00  7.5350000e-02
 1.96000e+00  2.36600e+00  7.5350000e-02
 1.96000e+00  2.38000e+00  7.5350000e-02
 1.96000e+00  2.39400e+00  7.5350000e-02
 1.96000e+00  2.40800e+00  7.5350000e-02
 1.96000e+00  2.42200e+00  7.5350000e-02
 1.96000e+00  2.43600e+00  7.5350000e-02
 1.96000e+00  2.45000e+00  7.5350000e-02
 1.96000e+00  2.46400e+00  7.5350000e-02
 1.96000e+00  2.47800e+00  7.5350000e-02
 1.96000e+00  2.49200e+00  7.5350000e-02
 1.96000e+00  2.50600e+00  7.5350000e-02
 1.96000e+00  2.52000e+00  7.5350000e-02
 1.96000e+00  2.53400e+00  7.5350000e-02
 1.96000e+00  2.54800e+00  7.5350000e-02
 1.96000e+00  2.56200e+00  7.5350000e-02
 1.96000e+00  2.57600e+00  7.5350000e-02
 1.96000e+00  2.59000e+00  7.5350000e-02
 1.96000e+00  2.60400e+00  7.5350000e-02
 1.96000e+00  2.61800e+00  7.5350000e-02
 1.96000e+00  2.63200e+00  7.5350000e-02
 1.96000e+00  2.64600e+00  7.5350000e-02
 1.96000e+00  2.66000e+00  7.5350000e-02
 1.96000e+00  2.67400e+00  7.5350000e-02
 1.96000e+00  2.68800e+00  7.5350000e-02
 1.96000e+00  2.70200e+00  7.5350000e-02
 1.96000e+00  2.71600e+00  7.5350000e-02
 1.96000e+00  2.73000e+00  7.5350000e-02
 1.96000e+00  2.74400e+00  7.5350000e-02
 1.96000e+00  2.75800e+00  7.5350000e-02
 1.96000e+00  2.77200e+00  7.5350000e-02
 1.96000e+00  2.78600e+00  7.5350000e-02
 1.96000e+00  2.80000e+00  7.5350000e-02
 1.96000e+00  2.81400e+00  7.5350000e-02
 1.96000e+00  2.82800e+00  7.5350000e-02
 1.96000e+00  2.84200e+00  7.5350000e-02
 1.96000e+00  2.85600e+00  7.5350000e-02
 1.96000e+00  2.87000e+00  7.5350000e-02
 1.96000e+00  2.88400e+00  7.5350000e-02
 1.96000e+00  2.89800e+00  7.5350000e-02
 1.96000e+00  2.91200e+00  7.5350000e-02
 1.96000e+00  2.92600e+00  7.5350000e-02
 1.96000e+00  2.94000e+00  7.5350000e-02
 1.96000e+00  2.95400e+00  7.5350000e-02
 1.96000e+00  2.96800e+00  7.5350000e-02
 1.96000e+00  2.98200e+00  7.5350000e-02
 1.96000e+00  2.99600e+00  7.5350000e-02
 1.96000e+00  3.01000e+00  7.5350000e-02
 1.96000e+00  3.02400e+00  7.5350000e-02
 1.96000e+00  3.03800e+00  7.5350000e-02
 1.96000e+00  3.05200e+00  7.5350000e-02
 1.96000e+00  3.06600e+00  7.5350000e-02
 1.96000e+00  3.08000e+00  7.5350000e-02
 1.96000e+00  3.09400e+00  7.5350000e-02
 1.96000e+00  3.10800e+00  7.5350000e-02
 1.96000e+00  3.12200e+00  7.5350000e-02
 1.96000e+00  3.13600e+00  7.5350000e-02
 1.96000e+00  3.15000e+00  7.5350000e-02
 1.96000e+00  3.16400e+00  7.5350000e-02
 1.96000e+00  3.17800e+00  7.5350000e-02
 1.96000e+00  3.19200e+00  7.5350000e-02
 1.96000e+00  3.20600e+00  7.5350000e-02
 1.96000e+00  3.22000e+00  7.5350000e-02
 1.96000e+00  3.23400e+00  7.5350000e-02
 1.96000e+00  3.24800e+00  7.5350000e-02
 1.96000e+00  3.26200e+00  7.5350000e-02
 1.96000e+00  3.27600e+00  7.5350000e-02
 1.96000e+00  3.29000e+00  7.5350000e-02
 1.96000e+00  3.30400e+00  7.5350000e-02
 1.96000e+00  3.31800e+00  7.5350000e-02
 1.96000e+00  3.33200e+00  7.5350000e-02
 1.96000e+00  3.34600e+00  7.5350000e-02
 1.96000e+00  3.36000e+00  7.5350000e-02
 1.96000e+00  3.37400e+00  7.5350000e-02
 1.96000e+00  3.38800e+00  7.5350000e-02
 1.96000e+00  3.40200e+00  7.5350000e-02
 1.97400e+00  0.00000e+00  7.5000000e-02
 1.97400e+00  1.40000e-02  7.5000000e-02
 1.97400e+00  2.80000e-02  7.5000000e-02
 1.97400e+00  4.20000e-02  7.5000000e-02
 1.97400e+00  5.60000e-02  7.5000000e-02
 1.97400e+00  7.00000e-02  7.5000000e-02
 1.97400e+00  8.40000e-02  7.5000000e-02
 1.97400e+00  9.80000e-02  7.5000000e-02
 1.97400e+00  1.12000e-01  7.5000000e-02
 1.97400e+00  1.26000e-01  7.5000000e-02
 1.97400e+00  1.40000e-01  7.5000000e-02
 1.97400e+00  1.54000e-01  7.5000000e-02
 1.97400e+00  1.68000e-01  7.5000000e-02
 1.97400e+00  1.82000e-01  7.5000000e-02
 1.97400e+00  1.96000e-01  7.5000000e-02
 1.97400e+00  2.10000e-01  7.5000000e-02
 1.97400e+00  2.24000e-01  7.5000000e-02
 1.97400e+00  2.38000e-01  7.5000000e-02
 1.97400e+00  2.52000e-01  7.5000000e-02
 1.97400e+00  2.66000e-01  7.5000000e-02
 1.97400e+00  2.80000e-01  7.5000000e-02
 1.97400e+00  2.94000e-01  7.5000000e-02
 1.97400e+00  3.08000e-01  7.5000000e-02
 1.97400e+00  3.22000e-01  7.5000000e-02
 1.97400e+00  3.36000e-01  7.5000000e-02
 1.97400e+00  3.50000e-01  7.5000000e-02
 1.97400e+00  3.64000e-01  7.5000000e-02
 1.97400e+00  3.78000e-01  7.5000000e-02
 1.97400e+00  3.92000e-01  7.5000000e-02
 1.97400e+00  4.06000e-01  7.5000000e-02
 1.97400e+00  4.20000e-01  7.5000000e-02
 1.97400e+00  4.34000e-01  7.5000000e-02
 1.97400e+00  4.48000e-01  7.5000000e-02
 1.97400e+00  4.62000e-01  7.5000000e-02
 1.97400e+00  4.76000e-01  7.5000000e-02
 1.97400e+00  4.90000e-01  7.5000000e-02
 1.97400e+00  5.04000e-01  7.5000000e-02
 1.97400e+00  5.18000e-01  7.5000000e-02
 1.97400e+00  5.32000e-01  7.5000000e-02
 1.97400e+00  5.46000e-01  7.5000000e-02
 1.97400e+00  5.60000e-01  7.5000000e-02
 1.97400e+00  5.74000e-01  7.5000000e-02
 1.97400e+00  5.88000e-01  7.5000000e-02
 1.97400e+00  6.02000e-01  7.5000000e-02
 1.97400e+00  6.16000e-01  7.5000000e-02
 1.97400e+00  6.30000e-01  7.5000000e-02
 1.97400e+00  6.44000e-01  7.5000000e-02
 1.97400e+00  6.58000e-01  7.5000000e-02
 1.97400e+00  6.72000e-01  7.5000000e-02
 1.97400e+00  6.86000e-01  7.5000000e-02
 1.97400e+00  7.00000e-01  7.5000000e-02
 1.97400e+00  7.14000e-01  7.5000000e-02
 1.97400e+00  7.28000e-01  7.5000000e-02
 1.97400e+00  7.42000e-01  7.5000000e-02
 1.97400e+00  7.56000e-01  7.5000000e-02
 1.97400e+00  7.70000e-01  7.5000000e-02
 1.97400e+00  7.84000e-01  7.5000000e-02
 1.97400e+00  7.98000e-01  7.5000000e-02
 1.97400e+00  8.12000e-01  7.5000000e-02
 1.97400e+00  8.26000e-01  7.5000000e-02
 1.97400e+00  8.40000e-01  7.5000000e-02
 1.97400e+00  8.54000e-01  7.5000000e-02
 1.97400e+00  8.68000e-01  7.5000000e-02
 1.97400e+00  8.82000e-01  7.5000000e-02
 1.97400e+00  8.96000e-01  7.5000000e-02
 1.97400e+00  9.10000e-01  7.5000000e-02
 1.97400e+00  9.24000e-01  7.5000000e-02
 1.97400e+00  9.38000e-01  7.5000000e-02
 1.97400e+00  9.52000e-01  7.5000000e-02
 1.97400e+00  9.66000e-01  7.5000000e-02
 1.97400e+00  9.80000e-01  7.5000000e-02
 1.97400e+00  9.94000e-01  7.5000000e-02
 1.97400e+00  1.00800e+00  7.5000000e-02
 1.97400e+00  1.02200e+00  7.5000000e-02
 1.97400e+00  1.03600e+00  7.5000000e-02
 1.97400e+00  1.05000e+00  7.5000000e-02
 1.97400e+00  1.06400e+00  7.5000000e-02
 1.97400e+00  1.07800e+00  7.5000000e-02
 1.97400e+00  1.09200e+00  7.5000000e-02
 1.97400e+00  1.10600e+00  7.5000000e-02
 1.97400e+00  1.12000e+00  7.5000000e-02
 1.97400e+00  1.13400e+00  7.5000000e-02
 1.97400e+00  1.14800e+00  7.5000000e-02
 1.97400e+00  1.16200e+00  7.5000000e-02
 1.97400e+00  1.17600e+00  7.5000000e-02
 1.97400e+00  1.19000e+00  7.5000000e-02
 1.97400e+00  1.20400e+00  7.5000000e-02
 1.97400e+00  1.21800e+00  7.5000000e-02
 1.97400e+00  1.23200e+00  7.5000000e-02
 1.97400e+00  1.24600e+00  7.5000000e-02
 1.97400e+00  1.26000e+00  7.5000000e-02
 1.97400e+00  1.27400e+00  7.5000000e-02
 1.97400e+00  1.28800e+00  7.5000000e-02
 1.97400e+00  1.30200e+00  7.5000000e-02
 1.97400e+00  1.31600e+00  7.5000000e-02
 1.97400e+00  1.33000e+00  7.5000000e-02
 1.97400e+00  1.34400e+00  7.5000000e-02
 1.97400e+00  1.35800e+00  7.5000000e-02
 1.97400e+00  1.37200e+00  7.5000000e-02
 1.97400e+00  1.38600e+00  7.5000000e-02
 1.97400e+00  1.40000e+00  7.5000000e-02
 1.97400e+00  1.41400e+00  7.5000000e-02
 1.97400e+00  1.42800e+00  7.5000000e-02
 1.97400e+00  1.44200e+00  7.5000000e-02
 1.97400e+00  1.45600e+00  7.5000000e-02
 1.97400e+00  1.47000e+00  7.5000000e-02
 1.97400e+00  1.48400e+00  7.5000000e-02
 1.97400e+00  1.49800e+00  7.5000000e-02
 1.97400e+00  1.51200e+00  7.5000000e-02
 1.97400e+00  1.52600e+00  7.5000000e-02
 1.97400e+00  1.54000e+00  7.5000000e-02
 1.97400e+00  1.55400e+00  7.5000000e-02
 1.97400e+00  1.56800e+00  7.5000000e-02
 1.97400e+00  1.58200e+00  7.5000000e-02
 1.97400e+00  1.59600e+00  7.5000000e-02
 1.97400e+00  1.61000e+00  7.5000000e-02
 1.97400e+00  1.62400e+00  7.5000000e-02
 1.97400e+00  1.63800e+00  7.5000000e-02
 1.97400e+00  1.65200e+00  7.5000000e-02
 1.97400e+00  1.66600e+00  7.5000000e-02
 1.97400e+00  1.68000e+00  7.5000000e-02
 1.97400e+00  1.69400e+00  7.5000000e-02
 1.97400e+00  1.70800e+00  7.5000000e-02
 1.97400e+00  1.72200e+00  7.5000000e-02
 1.97400e+00  1.73600e+00  7.5000000e-02
 1.97400e+00  1.75000e+00  7.5000000e-02
 1.97400e+00  1.76400e+00  7.5000000e-02
 1.97400e+00  1.77800e+00  7.5000000e-02
 1.97400e+00  1.79200e+00  7.5000000e-02
 1.97400e+00  1.80600e+00  7.5000000e-02
 1.97400e+00  1.82000e+00  7.5000000e-02
 1.97400e+00  1.83400e+00  7.5000000e-02
 1.97400e+00  1.84800e+00  7.5000000e-02
 1.97400e+00  1.86200e+00  7.5000000e-02
 1.97400e+00  1.87600e+00  7.5000000e-02
 1.97400e+00  1.89000e+00  7.5000000e-02
 1.97400e+00  1.90400e+00  7.5000000e-02
 1.97400e+00  1.91800e+00  7.5000000e-02
 1.97400e+00  1.93200e+00  7.5000000e-02
 1.97400e+00  1.94600e+00  7.5000000e-02
 1.97400e+00  1.96000e+00  7.5000000e-02
 1.97400e+00  1.97400e+00  7.5000000e-02
 1.97400e+00  1.98800e+00  7.5000000e-02
 1.97400e+00  2.00200e+00  7.5000000e-02
 1.97400e+00  2.01600e+00  7.5000000e-02
 1.97400e+00  2.03000e+00  7.5000000e-02
 1.97400e+00  2.04400e+00  7.5000000e-02
 1.97400e+00  2.05800e+00  7.5000000e-02
 1.97400e+00  2.07200e+00  7.5000000e-02
 1.97400e+00  2.08600e+00  7.5000000e-02
 1.97400e+00  2.10000e+00  7.5000000e-02
 1.97400e+00  2.11400e+00  7.5000000e-02
 1.97400e+00  2.12800e+00  7.5000000e-02
 1.97400e+00  2.14200e+00  7.5000000e-02
 1.97400e+00  2.15600e+00  7.5000000e-02
 1.97400e+00  2.17000e+00  7.5000000e-02
 1.97400e+00  2.18400e+00  7.5000000e-02
 1.97400e+00  2.19800e+00  7.5000000e-02
 1.97400e+00  2.21200e+00  7.5000000e-02
 1.97400e+00  2.22600e+00  7.5000000e-02
 1.97400e+00  2.24000e+00  7.5000000e-02
 1.97400e+00  2.25400e+00  7.5000000e-02
 1.97400e+00  2.26800e+00  7.5000000e-02
 1.97400e+00  2.28200e+00  7.5000000e-02
 1.97400e+00  2.29600e+00  7.5000000e-02
 1.97400e+00  2.31000e+00  7.5000000e-02
 1.97400e+00  2.32400e+00  7.5000000e-02
 1.97400e+00  2.33800e+00  7.5000000e-02
 1.97400e+00  2.35200e+00  7.5000000e-02
 1.97400e+00  2.36600e+00  7.5000000e-02
 1.97400e+00  2.38000e+00  7.5000000e-02
 1.97400e+00  2.39400e+00  7.5000000e-02
 1.97400e+00  2.40800e+00  7.5000000e-02
 1.97400e+00  2.42200e+00  7.5000000e-02
 1.97400e+00  2.43600e+00  7.5000000e-02
 1.97400e+00  2.45000e+00  7.5000000e-02
 1.97400e+00  2.46400e+00  7.5000000e-02
 1.97400e+00  2.47800e+00  7.5000000e-02
 1.97400e+00  2.49200e+00  7.5000000e-02
 1.97400e+00  2.50600e+00  7.5000000e-02
 1.97400e+00  2.52000e+00  7.5000000e-02
 1.97400e+00  2.53400e+00  7.5000000e-02
 1.97400e+00  2.54800e+00  7.5000000e-02
 1.97400e+00  2.56200e+00  7.5000000e-02
 1.97400e+00  2.57600e+00  7.5000000e-02
 1.97400e+00  2.59000e+00  7.5000000e-02
 1.97400e+00  2.60400e+00  7.5000000e-02
 1.97400e+00  2.61800e+00  7.5000000e-02
 1.97400e+00  2.63200e+00  7.5000000e-02
 1.97400e+00  2.64600e+00  7.5000000e-02
 1.97400e+00  2.66000e+00  7.5000000e-02
 1.97400e+00  2.67400e+00  7.5000000e-02
 1.97400e+00  2.68800e+00  7.5000000e-02
 1.97400e+00  2.70200e+00  7.5000000e-02
 1.97400e+00  2.71600e+00  7.5000000e-02
 1.97400e+00  2.73000e+00  7.5000000e-02
 1.97400e+00  2.74400e+00  7.5000000e-02
 1.97400e+00  2.75800e+00  7.5000000e-02
 1.97400e+00  2.77200e+00  7.5000000e-02
 1.97400e+00  2.78600e+00  7.5000000e-02
 1.97400e+00  2.80000e+00  7.5000000e-02
 1.97400e+00  2.81400e+00  7.5000000e-02
 1.97400e+00  2.82800e+00  7.5000000e-02
 1.97400e+00  2.84200e+00  7.5000000e-02
 1.97400e+00  2.85600e+00  7.5000000e-02
 1.97400e+00  2.87000e+00  7.5000000e-02
 1.97400e+00  2.88400e+00  7.5000000e-02
 1.97400e+00  2.89800e+00  7.5000000e-02
 1.97400e+00  2.91200e+00  7.5000000e-02
 1.97400e+00  2.92600e+00  7.5000000e-02
 1.97400e+00  2.94000e+00  7.5000000e-02
 1.97400e+00  2.95400e+00  7.5000000e-02
 1.97400e+00  2.96800e+00  7.5000000e-02
 1.97400e+00  2.98200e+00  7.5000000e-02
 1.97400e+00  2.99600e+00  7.5000000e-02
 1.97400e+00  3.01000e+00  7.5000000e-02
 1.97400e+00  3.02400e+00  7.5000000e-02
 1.97400e+00  3.03800e+00  7.5000000e-02
 1.97400e+00  3.05200e+00  7.5000000e-02
 1.97400e+00  3.06600e+00  7.5000000e-02
 1.97400e+00  3.08000e+00  7.5000000e-02
 1.97400e+00  3.09400e+00  7.5000000e-02
 1.97400e+00  3.10800e+00  7.5000000e-02
 1.97400e+00  3.12200e+00  7.5000000e-02
 1.97400e+00  3.13600e+00  7.5000000e-02
 1.97400e+00  3.15000e+00  7.5000000e-02
 1.97400e+00  3.16400e+00  7.5000000e-02
 1.97400e+00  3.17800e+00  7.5000000e-02
 1.97400e+00  3.19200e+00  7.5000000e-02
 1.97400e+00  3.20600e+00  7.5000000e-02
 1.97400e+00  3.22000e+00  7.5000000e-02
 1.97400e+00  3.23400e+00  7.5000000e-02
 1.97400e+00  3.24800e+00  7.5000000e-02
 1.97400e+00  3.26200e+00  7.5000000e-02
 1.97400e+00  3.27600e+00  7.5000000e-02
 1.97400e+00  3.29000e+00  7.5000000e-02
 1.97400e+00  3.30400e+00  7.5000000e-02
 1.97400e+00  3.31800e+00  7.5000000e-02
 1.97400e+00  3.33200e+00  7.5000000e-02
 1.97400e+00  3.34600e+00  7.5000000e-02
 1.97400e+00  3.36000e+00  7.5000000e-02
 1.97400e+00  3.37400e+00  7.5000000e-02
 1.97400e+00  3.38800e+00  7.5000000e-02
 1.97400e+00  3.40200e+00  7.5000000e-02
 1.98800e+00  0.00000e+00  7.7425000e-02
 1.98800e+00  1.40000e-02  7.7425000e-02
 1.98800e+00  2.80000e-02  7.7425000e-02
 1.98800e+00  4.20000e-02  7.7425000e-02
 1.98800e+00  5.60000e-02  7.7425000e-02
 1.98800e+00  7.00000e-02  7.7425000e-02
 1.98800e+00  8.40000e-02  7.7425000e-02
 1.98800e+00  9.80000e-02  7.7425000e-02
 1.98800e+00  1.12000e-01  7.7425000e-02
 1.98800e+00  1.26000e-01  7.7425000e-02
 1.98800e+00  1.40000e-01  7.7425000e-02
 1.98800e+00  1.54000e-01  7.7425000e-02
 1.98800e+00  1.68000e-01  7.7425000e-02
 1.98800e+00  1.82000e-01  7.7425000e-02
 1.98800e+00  1.96000e-01  7.7425000e-02
 1.98800e+00  2.10000e-01  7.7425000e-02
 1.98800e+00  2.24000e-01  7.7425000e-02
 1.98800e+00  2.38000e-01  7.7430000e-02
 1.98800e+00  2.52000e-01  7.7435000e-02
 1.98800e+00  2.66000e-01  7.7440000e-02
 1.98800e+00  2.80000e-01  7.7445000e-02
 1.98800e+00  2.94000e-01  7.7447500e-02
 1.98800e+00  3.08000e-01  7.7450000e-02
 1.98800e+00  3.22000e-01  7.7452500e-02
 1.98800e+00  3.36000e-01  7.7450000e-02
 1.98800e+00  3.50000e-01  7.7445000e-02
 1.98800e+00  3.64000e-01  7.7442500e-02
 1.98800e+00  3.78000e-01  7.7437500e-02
 1.98800e+00  3.92000e-01  7.7432500e-02
 1.98800e+00  4.06000e-01  7.7422500e-02
 1.98800e+00  4.20000e-01  7.7407500e-02
 1.98800e+00  4.34000e-01  7.7390000e-02
 1.98800e+00  4.48000e-01  7.7372500e-02
 1.98800e+00  4.62000e-01  7.7350000e-02
 1.98800e+00  4.76000e-01  7.7327500e-02
 1.98800e+00  4.90000e-01  7.7302500e-02
 1.98800e+00  5.04000e-01  7.7280000e-02
 1.98800e+00  5.18000e-01  7.7255000e-02
 1.98800e+00  5.32000e-01  7.7235000e-02
 1.98800e+00  5.46000e-01  7.7215000e-02
 1.98800e+00  5.60000e-01  7.7197500e-02
 1.98800e+00  5.74000e-01  7.7177500e-02
 1.98800e+00  5.88000e-01  7.7155000e-02
 1.98800e+00  6.02000e-01  7.7137500e-02
 1.98800e+00  6.16000e-01  7.7120000e-02
 1.98800e+00  6.30000e-01  7.7105000e-02
 1.98800e+00  6.44000e-01  7.7092500e-02
 1.98800e+00  6.58000e-01  7.7077500e-02
 1.98800e+00  6.72000e-01  7.7062500e-02
 1.98800e+00  6.86000e-01  7.7042500e-02
 1.98800e+00  7.00000e-01  7.7017500e-02
 1.98800e+00  7.14000e-01  7.6987500e-02
 1.98800e+00  7.28000e-01  7.6950000e-02
 1.98800e+00  7.42000e-01  7.6910000e-02
 1.98800e+00  7.56000e-01  7.6865000e-02
 1.98800e+00  7.70000e-01  7.6815000e-02
 1.98800e+00  7.84000e-01  7.6757500e-02
 1.98800e+00  7.98000e-01  7.6695000e-02
 1.98800e+00  8.12000e-01  7.6625000e-02
 1.98800e+00  8.26000e-01  7.6550000e-02
 1.98800e+00  8.40000e-01  7.6472500e-02
 1.98800e+00  8.54000e-01  7.6392500e-02
 1.98800e+00  8.68000e-01  7.6312500e-02
 1.98800e+00  8.82000e-01  7.6232500e-02
 1.98800e+00  8.96000e-01  7.6155000e-02
 1.98800e+00  9.10000e-01  7.6077500e-02
 1.98800e+00  9.24000e-01  7.5997500e-02
 1.98800e+00  9.38000e-01  7.5920000e-02
 1.98800e+00  9.52000e-01  7.5842500e-02
 1.98800e+00  9.66000e-01  7.5765000e-02
 1.98800e+00  9.80000e-01  7.5687500e-02
 1.98800e+00  9.94000e-01  7.5612500e-02
 1.98800e+00  1.00800e+00  7.5542500e-02
 1.98800e+00  1.02200e+00  7.5475000e-02
 1.98800e+00  1.03600e+00  7.5410000e-02
 1.98800e+00  1.05000e+00  7.5345000e-02
 1.98800e+00  1.06400e+00  7.5280000e-02
 1.98800e+00  1.07800e+00  7.5210000e-02
 1.98800e+00  1.09200e+00  7.5135000e-02
 1.98800e+00  1.10600e+00  7.5057500e-02
 1.98800e+00  1.12000e+00  7.4972500e-02
 1.98800e+00  1.13400e+00  7.4882500e-02
 1.98800e+00  1.14800e+00  7.4790000e-02
 1.98800e+00  1.16200e+00  7.4695000e-02
 1.98800e+00  1.17600e+00  7.4595000e-02
 1.98800e+00  1.19000e+00  7.4495000e-02
 1.98800e+00  1.20400e+00  7.4392500e-02
 1.98800e+00  1.21800e+00  7.4290000e-02
 1.98800e+00  1.23200e+00  7.4187500e-02
 1.98800e+00  1.24600e+00  7.4087500e-02
 1.98800e+00  1.26000e+00  7.3992500e-02
 1.98800e+00  1.27400e+00  7.3905000e-02
 1.98800e+00  1.28800e+00  7.3825000e-02
 1.98800e+00  1.30200e+00  7.3752500e-02
 1.98800e+00  1.31600e+00  7.3690000e-02
 1.98800e+00  1.33000e+00  7.3637500e-02
 1.98800e+00  1.34400e+00  7.3592500e-02
 1.98800e+00  1.35800e+00  7.3555000e-02
 1.98800e+00  1.37200e+00  7.3530000e-02
 1.98800e+00  1.38600e+00  7.3510000e-02
 1.98800e+00  1.40000e+00  7.3497500e-02
 1.98800e+00  1.41400e+00  7.3490000e-02
 1.98800e+00  1.42800e+00  7.3482500e-02
 1.98800e+00  1.44200e+00  7.3475000e-02
 1.98800e+00  1.45600e+00  7.3462500e-02
 1.98800e+00  1.47000e+00  7.3440000e-02
 1.98800e+00  1.48400e+00  7.3405000e-02
 1.98800e+00  1.49800e+00  7.3355000e-02
 1.98800e+00  1.51200e+00  7.3290000e-02
 1.98800e+00  1.52600e+00  7.3207500e-02
 1.98800e+00  1.54000e+00  7.3110000e-02
 1.98800e+00  1.55400e+00  7.2995000e-02
 1.98800e+00  1.56800e+00  7.2865000e-02
 1.98800e+00  1.58200e+00  7.2722500e-02
 1.98800e+00  1.59600e+00  7.2565000e-02
 1.98800e+00  1.61000e+00  7.2397500e-02
 1.98800e+00  1.62400e+00  7.2222500e-02
 1.98800e+00  1.63800e+00  7.2042500e-02
 1.98800e+00  1.65200e+00  7.1852500e-02
 1.98800e+00  1.66600e+00  7.1657500e-02
 1.98800e+00  1.68000e+00  7.1452500e-02
 1.98800e+00  1.69400e+00  7.1242500e-02
 1.98800e+00  1.70800e+00  7.1025000e-02
 1.98800e+00  1.72200e+00  7.0802500e-02
 1.98800e+00  1.73600e+00  7.0575000e-02
 1.98800e+00  1.75000e+00  7.0337500e-02
 1.98800e+00  1.76400e+00  7.0095000e-02
 1.98800e+00  1.77800e+00  6.9847500e-02
 1.98800e+00  1.79200e+00  6.9600000e-02
 1.98800e+00  1.80600e+00  6.9352500e-02
 1.98800e+00  1.82000e+00  6.9107500e-02
 1.98800e+00  1.83400e+00  6.8865000e-02
 1.98800e+00  1.84800e+00  6.8627500e-02
 1.98800e+00  1.86200e+00  6.8392500e-02
 1.98800e+00  1.87600e+00  6.8167500e-02
 1.98800e+00  1.89000e+00  6.7952500e-02
 1.98800e+00  1.90400e+00  6.7750000e-02
 1.98800e+00  1.91800e+00  6.7555000e-02
 1.98800e+00  1.93200e+00  6.7367500e-02
 1.98800e+00  1.94600e+00  6.7190000e-02
 1.98800e+00  1.96000e+00  6.7027500e-02
 1.98800e+00  1.97400e+00  6.6875000e-02
 1.98800e+00  1.98800e+00  6.6730000e-02
 1.98800e+00  2.00200e+00  6.6592500e-02
 1.98800e+00  2.01600e+00  6.6460000e-02
 1.98800e+00  2.03000e+00  6.6335000e-02
 1.98800e+00  2.04400e+00  6.6220000e-02
 1.98800e+00  2.05800e+00  6.6110000e-02
 1.98800e+00  2.07200e+00  6.6010000e-02
 1.98800e+00  2.08600e+00  6.5915000e-02
 1.98800e+00  2.10000e+00  6.5825000e-02
 1.98800e+00  2.11400e+00  6.5740000e-02
 1.98800e+00  2.12800e+00  6.5660000e-02
 1.98800e+00  2.14200e+00  6.5585000e-02
 1.98800e+00  2.15600e+00  6.5517500e-02
 1.98800e+00  2.17000e+00  6.5455000e-02
 1.98800e+00  2.18400e+00  6.5402500e-02
 1.98800e+00  2.19800e+00  6.5357500e-02
 1.98800e+00  2.21200e+00  6.5322500e-02
 1.98800e+00  2.22600e+00  6.5300000e-02
 1.98800e+00  2.24000e+00  6.5290000e-02
 1.98800e+00  2.25400e+00  6.5287500e-02
 1.98800e+00  2.26800e+00  6.5297500e-02
 1.98800e+00  2.28200e+00  6.5315000e-02
 1.98800e+00  2.29600e+00  6.5345000e-02
 1.98800e+00  2.31000e+00  6.5385000e-02
 1.98800e+00  2.32400e+00  6.5437500e-02
 1.98800e+00  2.33800e+00  6.5502500e-02
 1.98800e+00  2.35200e+00  6.5577500e-02
 1.98800e+00  2.36600e+00  6.5662500e-02
 1.98800e+00  2.38000e+00  6.5757500e-02
 1.98800e+00  2.39400e+00  6.5857500e-02
 1.98800e+00  2.40800e+00  6.5970000e-02
 1.98800e+00  2.42200e+00  6.6087500e-02
 1.98800e+00  2.43600e+00  6.6217500e-02
 1.98800e+00  2.45000e+00  6.6355000e-02
 1.98800e+00  2.46400e+00  6.6500000e-02
 1.98800e+00  2.47800e+00  6.6652500e-02
 1.98800e+00  2.49200e+00  6.6812500e-02
 1.98800e+00  2.50600e+00  6.6982500e-02
 1.98800e+00  2.52000e+00  6.7162500e-02
 1.98800e+00  2.53400e+00  6.7352500e-02
 1.98800e+00  2.54800e+00  6.7550000e-02
 1.98800e+00  2.56200e+00  6.7750000e-02
 1.98800e+00  2.57600e+00  6.7955000e-02
 1.98800e+00  2.59000e+00  6.8167500e-02
 1.98800e+00  2.60400e+00  6.8382500e-02
 1.98800e+00  2.61800e+00  6.8605000e-02
 1.98800e+00  2.63200e+00  6.8832500e-02
 1.98800e+00  2.64600e+00  6.9062500e-02
 1.98800e+00  2.66000e+00  6.9295000e-02
 1.98800e+00  2.67400e+00  6.9530000e-02
 1.98800e+00  2.68800e+00  6.9762500e-02
 1.98800e+00  2.70200e+00  6.9995000e-02
 1.98800e+00  2.71600e+00  7.0227500e-02
 1.98800e+00  2.73000e+00  7.0460000e-02
 1.98800e+00  2.74400e+00  7.0695000e-02
 1.98800e+00  2.75800e+00  7.0930000e-02
 1.98800e+00  2.77200e+00  7.1162500e-02
 1.98800e+00  2.78600e+00  7.1395000e-02
 1.98800e+00  2.80000e+00  7.1620000e-02
 1.98800e+00  2.81400e+00  7.1840000e-02
 1.98800e+00  2.82800e+00  7.2055000e-02
 1.98800e+00  2.84200e+00  7.2265000e-02
 1.98800e+00  2.85600e+00  7.2472500e-02
 1.98800e+00  2.87000e+00  7.2677500e-02
 1.98800e+00  2.88400e+00  7.2880000e-02
 1.98800e+00  2.89800e+00  7.3077500e-02
 1.98800e+00  2.91200e+00  7.3270000e-02
 1.98800e+00  2.92600e+00  7.3457500e-02
 1.98800e+00  2.94000e+00  7.3645000e-02
 1.98800e+00  2.95400e+00  7.3830000e-02
 1.98800e+00  2.96800e+00  7.4012500e-02
 1.98800e+00  2.98200e+00  7.4195000e-02
 1.98800e+00  2.99600e+00  7.4377500e-02
 1.98800e+00  3.01000e+00  7.4562500e-02
 1.98800e+00  3.02400e+00  7.4750000e-02
 1.98800e+00  3.03800e+00  7.4942500e-02
 1.98800e+00  3.05200e+00  7.5137500e-02
 1.98800e+00  3.06600e+00  7.5337500e-02
 1.98800e+00  3.08000e+00  7.5537500e-02
 1.98800e+00  3.09400e+00  7.5740000e-02
 1.98800e+00  3.10800e+00  7.5940000e-02
 1.98800e+00  3.12200e+00  7.6140000e-02
 1.98800e+00  3.13600e+00  7.6337500e-02
 1.98800e+00  3.15000e+00  7.6530000e-02
 1.98800e+00  3.16400e+00  7.6720000e-02
 1.98800e+00  3.17800e+00  7.6900000e-02
 1.98800e+00  3.19200e+00  7.7072500e-02
 1.98800e+00  3.20600e+00  7.7072500e-02
 1.98800e+00  3.22000e+00  7.7072500e-02
 1.98800e+00  3.23400e+00  7.7072500e-02
 1.98800e+00  3.24800e+00  7.7072500e-02
 1.98800e+00  3.26200e+00  7.7072500e-02
 1.98800e+00  3.27600e+00  7.7072500e-02
 1.98800e+00  3.29000e+00  7.7072500e-02
 1.98800e+00  3.30400e+00  7.7072500e-02
 1.98800e+00  3.31800e+00  7.7072500e-02
 1.98800e+00  3.33200e+00  7.7072500e-02
 1.98800e+00  3.34600e+00  7.7072500e-02
 1.98800e+00  3.36000e+00  7.7072500e-02
 1.98800e+00  3.37400e+00  7.7072500e-02
 1.98800e+00  3.38800e+00  7.7072500e-02
 1.98800e+00  3.40200e+00  7.7072500e-02
 2.00200e+00  0.00000e+00  7.7075000e-02
 2.00200e+00  1.40000e-02  7.7075000e-02
 2.00200e+00  2.80000e-02  7.7075000e-02
 2.00200e+00  4.20000e-02  7.7075000e-02
 2.00200e+00  5.60000e-02  7.7075000e-02
 2.00200e+00  7.00000e-02  7.7075000e-02
 2.00200e+00  8.40000e-02  7.7075000e-02
 2.00200e+00  9.80000e-02  7.7075000e-02
 2.00200e+00  1.12000e-01  7.7075000e-02
 2.00200e+00  1.26000e-01  7.7075000e-02
 2.00200e+00  1.40000e-01  7.7075000e-02
 2.00200e+00  1.54000e-01  7.7075000e-02
 2.00200e+00  1.68000e-01  7.7075000e-02
 2.00200e+00  1.82000e-01  7.7075000e-02
 2.00200e+00  1.96000e-01  7.7075000e-02
 2.00200e+00  2.10000e-01  7.7075000e-02
 2.00200e+00  2.24000e-01  7.7075000e-02
 2.00200e+00  2.38000e-01  7.7080000e-02
 2.00200e+00  2.52000e-01  7.7085000e-02
 2.00200e+00  2.66000e-01  7.7090000e-02
 2.00200e+00  2.80000e-01  7.7095000e-02
 2.00200e+00  2.94000e-01  7.7097500e-02
 2.00200e+00  3.08000e-01  7.7100000e-02
 2.00200e+00  3.22000e-01  7.7102500e-02
 2.00200e+00  3.36000e-01  7.7100000e-02
 2.00200e+00  3.50000e-01  7.7095000e-02
 2.00200e+00  3.64000e-01  7.7092500e-02
 2.00200e+00  3.78000e-01  7.7087500e-02
 2.00200e+00  3.92000e-01  7.7082500e-02
 2.00200e+00  4.06000e-01  7.7072500e-02
 2.00200e+00  4.20000e-01  7.7057500e-02
 2.00200e+00  4.34000e-01  7.7040000e-02
 2.00200e+00  4.48000e-01  7.7022500e-02
 2.00200e+00  4.62000e-01  7.7000000e-02
 2.00200e+00  4.76000e-01  7.6977500e-02
 2.00200e+00  4.90000e-01  7.6952500e-02
 2.00200e+00  5.04000e-01  7.6930000e-02
 2.00200e+00  5.18000e-01  7.6905000e-02
 2.00200e+00  5.32000e-01  7.6885000e-02
 2.00200e+00  5.46000e-01  7.6865000e-02
 2.00200e+00  5.60000e-01  7.6847500e-02
 2.00200e+00  5.74000e-01  7.6827500e-02
 2.00200e+00  5.88000e-01  7.6805000e-02
 2.00200e+00  6.02000e-01  7.6787500e-02
 2.00200e+00  6.16000e-01  7.6770000e-02
 2.00200e+00  6.30000e-01  7.6755000e-02
 2.00200e+00  6.44000e-01  7.6742500e-02
 2.00200e+00  6.58000e-01  7.6727500e-02
 2.00200e+00  6.72000e-01  7.6712500e-02
 2.00200e+00  6.86000e-01  7.6692500e-02
 2.00200e+00  7.00000e-01  7.6667500e-02
 2.00200e+00  7.14000e-01  7.6637500e-02
 2.00200e+00  7.28000e-01  7.6600000e-02
 2.00200e+00  7.42000e-01  7.6560000e-02
 2.00200e+00  7.56000e-01  7.6515000e-02
 2.00200e+00  7.70000e-01  7.6465000e-02
 2.00200e+00  7.84000e-01  7.6407500e-02
 2.00200e+00  7.98000e-01  7.6345000e-02
 2.00200e+00  8.12000e-01  7.6275000e-02
 2.00200e+00  8.26000e-01  7.6200000e-02
 2.00200e+00  8.40000e-01  7.6122500e-02
 2.00200e+00  8.54000e-01  7.6042500e-02
 2.00200e+00  8.68000e-01  7.5962500e-02
 2.00200e+00  8.82000e-01  7.5882500e-02
 2.00200e+00  8.96000e-01  7.5805000e-02
 2.00200e+00  9.10000e-01  7.5727500e-02
 2.00200e+00  9.24000e-01  7.5647500e-02
 2.00200e+00  9.38000e-01  7.5570000e-02
 2.00200e+00  9.52000e-01  7.5492500e-02
 2.00200e+00  9.66000e-01  7.5415000e-02
 2.00200e+00  9.80000e-01  7.5337500e-02
 2.00200e+00  9.94000e-01  7.5262500e-02
 2.00200e+00  1.00800e+00  7.5192500e-02
 2.00200e+00  1.02200e+00  7.5125000e-02
 2.00200e+00  1.03600e+00  7.5060000e-02
 2.00200e+00  1.05000e+00  7.4995000e-02
 2.00200e+00  1.06400e+00  7.4930000e-02
 2.00200e+00  1.07800e+00  7.4860000e-02
 2.00200e+00  1.09200e+00  7.4785000e-02
 2.00200e+00  1.10600e+00  7.4707500e-02
 2.00200e+00  1.12000e+00  7.4622500e-02
 2.00200e+00  1.13400e+00  7.4532500e-02
 2.00200e+00  1.14800e+00  7.4440000e-02
 2.00200e+00  1.16200e+00  7.4345000e-02
 2.00200e+00  1.17600e+00  7.4245000e-02
 2.00200e+00  1.19000e+00  7.4145000e-02
 2.00200e+00  1.20400e+00  7.4042500e-02
 2.00200e+00  1.21800e+00  7.3940000e-02
 2.00200e+00  1.23200e+00  7.3837500e-02
 2.00200e+00  1.24600e+00  7.3737500e-02
 2.00200e+00  1.26000e+00  7.3642500e-02
 2.00200e+00  1.27400e+00  7.3555000e-02
 2.00200e+00  1.28800e+00  7.3475000e-02
 2.00200e+00  1.30200e+00  7.3402500e-02
 2.00200e+00  1.31600e+00  7.3340000e-02
 2.00200e+00  1.33000e+00  7.3287500e-02
 2.00200e+00  1.34400e+00  7.3242500e-02
 2.00200e+00  1.35800e+00  7.3205000e-02
 2.00200e+00  1.37200e+00  7.3180000e-02
 2.00200e+00  1.38600e+00  7.3160000e-02
 2.00200e+00  1.40000e+00  7.3147500e-02
 2.00200e+00  1.41400e+00  7.3140000e-02
 2.00200e+00  1.42800e+00  7.3132500e-02
 2.00200e+00  1.44200e+00  7.3125000e-02
 2.00200e+00  1.45600e+00  7.3112500e-02
 2.00200e+00  1.47000e+00  7.3090000e-02
 2.00200e+00  1.48400e+00  7.3055000e-02
 2.00200e+00  1.49800e+00  7.3005000e-02
 2.00200e+00  1.51200e+00  7.2940000e-02
 2.00200e+00  1.52600e+00  7.2857500e-02
 2.00200e+00  1.54000e+00  7.2760000e-02
 2.00200e+00  1.55400e+00  7.2645000e-02
 2.00200e+00  1.56800e+00  7.2515000e-02
